ply
format ascii 1.0
comment Author: CloudCompare (TELECOM PARISTECH/EDF R&D)
obj_info Generated by CloudCompare!
element vertex 1791
property float x
property float y
property float z
property float scalar_Scalar_field
end_header
11.0616 2.1449 -0.9658 40 
10.9554 2.1368 -0.9656 49 
11.0773 2.1534 -0.9655 40 
11.0986 2.1503 -0.9654 40 
11.0758 2.1549 -0.9654 40 
11.2483 2.7602 -0.9653 41 
11.2695 2.7635 -0.9652 41 
11.0298 2.1495 -0.965 40 
11.0945 2.7354 -0.965 54 
10.8879 2.1254 -0.9649 55 
11.7464 2.2685 -0.9649 48 
11.2203 2.7645 -0.9649 41 
11.609 2.2438 -0.9648 53 
11.1745 2.1635 -0.9648 34 
11.2428 2.7607 -0.9648 41 
11.2618 2.771 -0.9647 41 
11.2413 2.7622 -0.9647 41 
11.3618 2.1979 -0.9645 44 
11.3263 2.7755 -0.9645 38 
11.2584 2.772 -0.9645 41 
11.0456 2.1436 -0.9644 40 
11.0658 2.1493 -0.9644 40 
11.2559 2.7677 -0.9642 41 
11.0605 2.1537 -0.9641 40 
11.0623 2.1451 -0.9641 40 
10.9547 2.1367 -0.9637 49 
11.0992 2.1504 -0.9637 40 
11.0767 2.1532 -0.9636 40 
11.2706 2.7638 -0.9635 41 
11.2491 2.7604 -0.9635 41 
11.075 2.1547 -0.9635 40 
11.2245 2.7656 -0.9634 41 
11.7496 2.2691 -0.9633 48 
11.0946 2.7354 -0.9632 54 
11.1771 2.164 -0.9632 34 
11.2442 2.761 -0.9631 41 
11.0289 2.1494 -0.9631 40 
10.8857 2.125 -0.963 55 
11.2425 2.7625 -0.963 41 
11.3652 2.1986 -0.9629 44 
11.2621 2.7711 -0.9629 41 
11.6077 2.2436 -0.9629 53 
11.3274 2.7758 -0.9627 38 
11.0664 2.1494 -0.9627 40 
11.259 2.7684 -0.9626 41 
11.0456 2.1436 -0.9626 40 
11.0628 2.1451 -0.9623 40 
11.2541 2.771 -0.9623 41 
11.0584 2.1533 -0.9621 40 
11.1003 2.1506 -0.962 40 
11.2285 2.7665 -0.9619 41 
10.9544 2.1366 -0.9619 49 
11.0771 2.1533 -0.9619 40 
11.2502 2.7606 -0.9618 41 
11.3723 2.1999 -0.9617 44 
11.0747 2.1547 -0.9617 40 
11.2712 2.7639 -0.9617 41 
11.7526 2.2697 -0.9616 48 
11.1772 2.164 -0.9614 34 
11.0951 2.7355 -0.9614 54 
11.2439 2.7628 -0.9613 41 
11.2645 2.7717 -0.9613 41 
11.2439 2.761 -0.9613 41 
11.0262 2.1488 -0.9611 40 
11.3293 2.7763 -0.9611 38 
11.2619 2.7691 -0.961 41 
11.6069 2.2434 -0.9609 53 
10.8829 2.1245 -0.9609 55 
11.0457 2.1436 -0.9609 40 
11.0663 2.1494 -0.9609 40 
11.0636 2.1453 -0.9606 40 
11.3793 2.2013 -0.9604 -1 
11.2321 2.7674 -0.9604 41 
11.1015 2.1508 -0.9603 40 
11.0573 2.1531 -0.9602 40 
10.9548 2.1367 -0.9602 49 
11.2521 2.7611 -0.9601 41 
11.0775 2.1534 -0.9601 40 
11.2503 2.77 -0.9601 41 
11.7572 2.2705 -0.9601 48 
11.0743 2.1546 -0.9599 40 
11.2716 2.764 -0.9599 41 
11.1792 2.1644 -0.9598 34 
11.2669 2.7723 -0.9597 41 
11.0956 2.7357 -0.9596 54 
11.2461 2.7634 -0.9596 41 
11.2642 2.7697 -0.9594 41 
11.2437 2.7609 -0.9594 41 
11.331 2.7767 -0.9594 38 
11.3861 2.2026 -0.9592 56 
11.0459 2.1436 -0.9591 40 
11.6075 2.2435 -0.9591 53 
11.0657 2.1493 -0.9591 40 
10.8822 2.1243 -0.9591 55 
11.0222 2.148 -0.959 40 
11.2355 2.7683 -0.9589 41 
11.0635 2.1453 -0.9588 40 
11.1032 2.1512 -0.9587 40 
10.9554 2.1368 -0.9585 49 
11.0565 2.1529 -0.9584 40 
11.254 2.7616 -0.9584 41 
11.0777 2.1534 -0.9584 40 
11.0739 2.1545 -0.9581 40 
11.2724 2.7642 -0.9581 41 
11.1808 2.1647 -0.9581 34 
11.2483 2.7639 -0.958 41 
11.2471 2.7693 -0.958 41 
11.2675 2.7724 -0.9579 41 
11.0969 2.736 -0.9579 54 
11.3916 2.2037 -0.9578 56 
11.2657 2.7701 -0.9577 41 
11.3323 2.777 -0.9576 38 
10.8842 2.1247 -0.9576 55 
11.2437 2.7609 -0.9576 41 
11.2397 2.7693 -0.9574 41 
11.0466 2.1438 -0.9574 40 
11.0651 2.1492 -0.9572 40 
11.6072 2.2435 -0.9572 53 
11.063 2.1452 -0.957 40 
11.105 2.1515 -0.957 40 
11.0183 2.1473 -0.9569 40 
10.9558 2.1369 -0.9568 49 
11.2551 2.7618 -0.9567 41 
11.0775 2.1534 -0.9566 40 
11.0559 2.1528 -0.9565 40 
11.2736 2.7645 -0.9564 41 
11.3969 2.2047 -0.9564 56 
11.1814 2.1648 -0.9564 34 
11.074 2.1545 -0.9563 40 
11.0983 2.7363 -0.9563 54 
11.2491 2.7641 -0.9562 41 
10.8883 2.1255 -0.9562 55 
11.2461 2.769 -0.9561 41 
11.2682 2.7726 -0.9561 41 
11.245 2.7706 -0.956 41 
11.2666 2.7703 -0.9559 41 
11.3333 2.7773 -0.9559 38 
11.2437 2.7609 -0.9557 41 
11.0479 2.144 -0.9557 40 
11.0646 2.1491 -0.9554 40 
11.1061 2.1517 -0.9553 40 
11.0636 2.1453 -0.9553 40 
11.606 2.2432 -0.9552 53 
10.9565 2.137 -0.9551 49 
11.4002 2.2053 -0.9549 56 
11.2559 2.762 -0.9549 41 
11.0159 2.1468 -0.9549 40 
11.1837 2.1653 -0.9548 34 
11.0555 2.1527 -0.9547 40 
10.8916 2.1261 -0.9547 55 
11.0766 2.1532 -0.9547 40 
11.2749 2.7648 -0.9547 41 
11.0749 2.1547 -0.9546 40 
11.2496 2.7717 -0.9546 41 
11.0989 2.7365 -0.9545 54 
11.2474 2.7693 -0.9544 41 
11.249 2.7641 -0.9544 41 
11.2683 2.7726 -0.9543 41 
11.334 2.7774 -0.9541 38 
11.2443 2.7611 -0.954 41 
11.0487 2.1442 -0.954 40 
11.266 2.7701 -0.954 41 
11.1075 2.152 -0.9537 40 
11.0649 2.1455 -0.9536 40 
11.064 2.149 -0.9536 40 
10.9587 2.1375 -0.9535 49 
11.6078 2.2436 -0.9535 53 
11.1866 2.1658 -0.9532 34 
11.257 2.7623 -0.9532 41 
11.0144 2.1465 -0.953 40 
10.8924 2.1263 -0.953 55 
11.2523 2.7724 -0.953 41 
11.4001 2.2053 -0.953 56 
11.0762 2.1531 -0.9529 40 
11.2764 2.7652 -0.9529 41 
11.0757 2.1548 -0.9529 40 
11.0557 2.1528 -0.9529 40 
11.0998 2.7367 -0.9528 54 
11.2498 2.7699 -0.9527 41 
11.2503 2.7644 -0.9527 41 
11.3364 2.778 -0.9524 38 
11.6161 2.2452 -0.9523 53 
11.2662 2.7721 -0.9523 41 
11.2457 2.7614 -0.9523 41 
11.0498 2.1444 -0.9523 40 
11.2641 2.7697 -0.952 41 
10.9624 2.1382 -0.952 49 
11.1089 2.1523 -0.952 40 
11.0655 2.1457 -0.9519 40 
11.0642 2.149 -0.9518 40 
11.1892 2.1663 -0.9516 34 
11.629 2.2473 -0.9515 -1 
11.2548 2.773 -0.9514 41 
11.2583 2.7626 -0.9514 41 
11.2781 2.7656 -0.9513 41 
11.4014 2.2056 -0.9513 56 
11.0142 2.1465 -0.9512 40 
10.8914 2.1261 -0.9512 55 
11.055 2.1526 -0.9511 40 
11.101 2.737 -0.9511 54 
11.0764 2.155 -0.9511 40 
11.0764 2.1532 -0.9511 40 
11.2504 2.7701 -0.951 41 
11.6448 2.2504 -0.9509 -1 
11.3397 2.7788 -0.9509 38 
11.2515 2.7647 -0.9509 41 
10.9664 2.139 -0.9506 49 
11.0506 2.1446 -0.9506 40 
11.247 2.7617 -0.9505 41 
11.195 2.1675 -0.9503 34 
11.2637 2.7696 -0.9502 41 
11.264 2.7715 -0.9502 41 
11.1093 2.1523 -0.9502 40 
11.0654 2.1492 -0.9501 40 
11.6571 2.2527 -0.9501 57 
11.065 2.1455 -0.95 40 
11.2573 2.7736 -0.9498 41 
11.2591 2.7628 -0.9497 41 
11.4037 2.206 -0.9496 56 
11.2793 2.7659 -0.9495 41 
11.0142 2.1465 -0.9494 40 
11.1026 2.7374 -0.9494 54 
11.077 2.1533 -0.9494 40 
10.8897 2.1258 -0.9493 55 
11.076 2.1549 -0.9493 40 
10.9699 2.1396 -0.9492 49 
11.3416 2.7793 -0.9492 38 
11.2522 2.7649 -0.9492 41 
11.0524 2.1521 -0.9491 40 
11.2499 2.7699 -0.9491 41 
11.248 2.762 -0.9488 41 
11.0508 2.1446 -0.9488 40 
11.6626 2.2538 -0.9486 57 
11.1952 2.1675 -0.9485 34 
11.1092 2.1523 -0.9484 40 
11.066 2.1494 -0.9484 40 
11.2632 2.7713 -0.9483 41 
11.2637 2.7696 -0.9483 41 
11.0646 2.1455 -0.9482 40 
11.2592 2.7741 -0.9481 41 
11.4047 2.2062 -0.9479 56 
11.2807 2.7662 -0.9478 41 
11.2588 2.7627 -0.9478 41 
11.0779 2.1535 -0.9477 40 
11.1045 2.7378 -0.9477 54 
11.0127 2.1462 -0.9475 40 
11.2527 2.765 -0.9474 41 
10.9706 2.1398 -0.9474 49 
11.3418 2.7793 -0.9474 38 
11.0747 2.1546 -0.9474 40 
10.8889 2.1256 -0.9474 55 
11.202 2.1688 -0.9473 34 
11.2486 2.7696 -0.9471 41 
11.2483 2.762 -0.947 41 
11.0505 2.1445 -0.947 40 
11.0473 2.1511 -0.9469 40 
11.6636 2.254 -0.9468 57 
11.1094 2.1524 -0.9467 40 
11.0653 2.1492 -0.9466 40 
11.0655 2.1456 -0.9465 40 
11.2627 2.7712 -0.9465 41 
11.2623 2.7692 -0.9464 41 
11.2594 2.7629 -0.946 41 
11.2813 2.7664 -0.946 41 
11.1051 2.738 -0.946 54 
11.4041 2.2061 -0.946 56 
11.2559 2.7733 -0.946 41 
11.0784 2.1536 -0.9459 40 
10.8905 2.1259 -0.9458 55 
11.2527 2.765 -0.9456 41 
11.0102 2.1457 -0.9455 40 
11.073 2.1543 -0.9455 40 
11.2022 2.1689 -0.9455 34 
11.3413 2.7792 -0.9455 38 
10.9691 2.1395 -0.9455 49 
11.2486 2.7621 -0.9452 41 
11.2474 2.7693 -0.9452 41 
11.0502 2.1445 -0.9452 40 
11.1098 2.1524 -0.9449 40 
11.066 2.1457 -0.9448 40 
11.6613 2.2535 -0.9448 57 
11.2633 2.7714 -0.9447 41 
11.0647 2.1491 -0.9447 40 
11.0407 2.1498 -0.9445 40 
11.261 2.7689 -0.9444 41 
10.8936 2.1265 -0.9443 55 
11.2608 2.7632 -0.9443 41 
11.079 2.1537 -0.9442 40 
11.2818 2.7665 -0.9442 41 
11.1047 2.7379 -0.9442 54 
11.4029 2.2058 -0.9441 56 
11.2044 2.1693 -0.9439 34 
11.2516 2.7647 -0.9436 41 
10.9675 2.1392 -0.9436 49 
11.0507 2.1446 -0.9435 40 
11.3403 2.779 -0.9435 38 
11.0071 2.1451 -0.9435 40 
11.2488 2.7622 -0.9434 41 
11.2475 2.7693 -0.9434 41 
11.2456 2.7708 -0.9433 41 
11.0683 2.1534 -0.9433 40 
11.267 2.7723 -0.9432 41 
11.1096 2.1524 -0.9431 40 
11.0663 2.1458 -0.943 40 
10.898 2.1274 -0.943 55 
11.0646 2.1491 -0.9429 40 
11.2626 2.7637 -0.9426 41 
11.656 2.2525 -0.9425 57 
11.2599 2.7686 -0.9425 41 
11.0799 2.1538 -0.9425 40 
11.2824 2.7667 -0.9424 41 
11.106 2.7382 -0.9424 54 
11.2064 2.1697 -0.9423 34 
11.0345 2.1486 -0.9422 40 
11.4004 2.2054 -0.942 56 
11.0513 2.1447 -0.9418 40 
11.2517 2.7647 -0.9418 41 
11.3411 2.7792 -0.9418 38 
10.9668 2.139 -0.9418 49 
11.2481 2.7695 -0.9416 41 
11.2707 2.7732 -0.9416 41 
11.2489 2.7622 -0.9415 41 
10.9011 2.128 -0.9415 55 
11.1105 2.1525 -0.9414 40 
11.067 2.1459 -0.9413 40 
11.0018 2.1441 -0.9412 40 
11.0643 2.149 -0.9411 40 
11.264 2.764 -0.9409 41 
11.0611 2.152 -0.9409 40 
11.1077 2.7386 -0.9408 54 
11.2599 2.7686 -0.9407 41 
11.2838 2.767 -0.9407 41 
11.0797 2.1538 -0.9407 40 
11.208 2.17 -0.9406 34 
11.2322 2.7674 -0.9403 -1 
11.0314 2.148 -0.9402 40 
11.2742 2.774 -0.9401 41 
11.3437 2.7798 -0.9401 38 
10.9678 2.1392 -0.9401 49 
11.052 2.1448 -0.94 40 
11.6481 2.251 -0.94 57 
11.2502 2.77 -0.94 41 
11.2511 2.7646 -0.9399 41 
11.3954 2.2044 -0.9398 56 
11.2501 2.7625 -0.9398 41 
10.9006 2.1279 -0.9397 55 
11.1107 2.1526 -0.9396 40 
11.0672 2.146 -0.9395 40 
11.0638 2.1489 -0.9393 40 
11.2649 2.7642 -0.9392 41 
11.1088 2.7389 -0.9391 54 
11.286 2.7675 -0.9391 41 
10.9968 2.1431 -0.939 40 
11.2615 2.769 -0.939 41 
11.2097 2.1703 -0.9389 34 
11.0781 2.1535 -0.9388 40 
11.2567 2.7716 -0.9387 41 
11.2789 2.7752 -0.9386 41 
11.3465 2.7805 -0.9385 38 
11.0536 2.1505 -0.9385 40 
11.053 2.145 -0.9384 40 
11.0307 2.1479 -0.9384 40 
10.9676 2.1392 -0.9383 49 
11.2514 2.7628 -0.9381 41 
11.25 2.7643 -0.938 41 
11.068 2.1461 -0.9378 40 
11.1102 2.1525 -0.9378 40 
11.2894 2.7778 -0.9377 41 
11.2223 2.765 -0.9377 58 
11.3906 2.2035 -0.9376 56 
11.267 2.7648 -0.9375 41 
11.6406 2.2495 -0.9375 59 
11.0635 2.1489 -0.9375 40 
10.8959 2.127 -0.9375 55 
11.2639 2.7696 -0.9374 41 
11.2135 2.171 -0.9374 34 
11.2882 2.7681 -0.9374 41 
11.1101 2.7392 -0.9374 54 
11.2619 2.7729 -0.9373 41 
11.3045 2.7815 -0.9371 41 
10.9949 2.1427 -0.9371 40 
11.3496 2.7812 -0.9369 38 
11.076 2.1531 -0.9368 40 
11.0542 2.1453 -0.9367 40 
10.9675 2.1392 -0.9366 49 
11.0301 2.1478 -0.9365 40 
11.0499 2.1498 -0.9364 40 
11.2509 2.7627 -0.9362 41 
11.0691 2.1463 -0.9361 40 
11.2492 2.7641 -0.9361 41 
11.3145 2.7839 -0.9361 41 
11.1106 2.1526 -0.936 40 
11.2688 2.7652 -0.9358 41 
11.1113 2.7395 -0.9357 54 
11.0631 2.1488 -0.9357 40 
11.2136 2.1711 -0.9357 34 
11.2893 2.7683 -0.9357 41 
11.2654 2.77 -0.9356 41 
11.2187 2.7641 -0.9355 58 
11.2632 2.7732 -0.9355 41 
11.388 2.203 -0.9355 56 
11.3524 2.7819 -0.9353 38 
10.9932 2.1424 -0.9352 40 
11.6351 2.2485 -0.9352 59 
10.8892 2.1257 -0.9352 55 
10.9698 2.1396 -0.935 49 
11.055 2.1454 -0.935 40 
11.0752 2.1529 -0.9349 40 
11.0292 2.1476 -0.9347 40 
11.0481 2.1495 -0.9345 40 
11.0705 2.1466 -0.9345 40 
11.3169 2.7845 -0.9344 41 
11.1114 2.1527 -0.9343 40 
11.2491 2.7641 -0.9343 41 
11.2497 2.7624 -0.9343 41 
11.7567 2.881 -0.9342 60 
11.2677 2.7706 -0.934 41 
11.2689 2.7652 -0.934 41 
11.2666 2.774 -0.934 41 
11.2147 2.1713 -0.9339 34 
11.2901 2.7685 -0.9339 41 
11.0633 2.1488 -0.9339 40 
11.1117 2.7396 -0.9339 54 
11.3562 2.7828 -0.9338 38 
11.2186 2.7641 -0.9337 58 
11.3873 2.2028 -0.9336 56 
10.9736 2.1403 -0.9336 49 
10.9919 2.1421 -0.9333 40 
11.055 2.1454 -0.9332 40 
11.0759 2.1531 -0.9332 40 
10.8854 2.1249 -0.9331 55 
11.6323 2.2479 -0.9331 59 
11.2743 2.7759 -0.9328 41 
11.0286 2.1475 -0.9328 40 
11.0706 2.1466 -0.9327 40 
11.2742 2.7721 -0.9327 41 
11.0466 2.1492 -0.9326 40 
11.1126 2.153 -0.9326 40 
11.2503 2.7644 -0.9325 41 
11.25 2.7625 -0.9325 41 
11.3606 2.7839 -0.9323 38 
11.2164 2.1716 -0.9323 34 
11.0637 2.1489 -0.9322 40 
11.1122 2.7397 -0.9321 54 
11.2683 2.7651 -0.9321 41 
11.3112 2.7831 -0.9321 41 
11.2909 2.7687 -0.9321 41 
11.7528 2.88 -0.932 60 
10.9766 2.1409 -0.932 49 
11.2193 2.7643 -0.9319 58 
11.3871 2.2028 -0.9318 56 
10.9935 2.1424 -0.9317 40 
11.2838 2.7745 -0.9317 41 
11.2809 2.7776 -0.9315 41 
10.8863 2.1251 -0.9314 55 
11.0549 2.1454 -0.9314 40 
11.0756 2.153 -0.9314 40 
11.6314 2.2477 -0.9311 59 
11.1146 2.1534 -0.931 40 
11.0272 2.1472 -0.931 40 
11.0708 2.1467 -0.9309 40 
11.295 2.7773 -0.9308 41 
11.2516 2.7647 -0.9308 41 
11.2194 2.1722 -0.9307 34 
11.3638 2.7847 -0.9307 38 
11.2509 2.7627 -0.9307 41 
11.0453 2.1489 -0.9307 40 
11.0645 2.1491 -0.9304 40 
11.2694 2.7653 -0.9304 41 
11.1131 2.7399 -0.9304 54 
10.9779 2.1412 -0.9304 49 
11.2913 2.7688 -0.9303 41 
11.2216 2.7648 -0.9303 58 
11.3893 2.2032 -0.9301 56 
10.9963 2.143 -0.9301 40 
10.8903 2.1259 -0.93 55 
11.7511 2.8796 -0.9299 60 
11.3061 2.78 -0.9298 41 
11.0555 2.1455 -0.9297 40 
11.28 2.7773 -0.9296 41 
11.0744 2.1528 -0.9295 40 
11.3001 2.7804 -0.9294 41 
11.1153 2.1535 -0.9293 40 
11.631 2.2477 -0.9292 59 
11.0712 2.1467 -0.9292 40 
11.0264 2.147 -0.9291 40 
11.367 2.7855 -0.9291 38 
11.2531 2.7651 -0.9291 41 
11.2281 2.7664 -0.929 58 
11.2513 2.7628 -0.9289 41 
11.2199 2.1723 -0.9289 34 
11.0441 2.1487 -0.9288 40 
10.8973 2.1272 -0.9288 55 
10.9997 2.1436 -0.9287 40 
11.0653 2.1492 -0.9287 40 
11.395 2.2043 -0.9287 56 
11.2716 2.7659 -0.9287 41 
11.3145 2.7821 -0.9287 41 
11.1139 2.7401 -0.9286 54 
11.293 2.7692 -0.9286 41 
10.977 2.141 -0.9285 49 
11.0568 2.1457 -0.928 40 
10.908 2.1293 -0.928 -1 
11.7477 2.8788 -0.9277 60 
10.9235 2.1323 -0.9276 -1 
11.2566 2.7659 -0.9276 41 
11.0366 2.7229 -0.9276 61 
11.0723 2.1524 -0.9276 40 
11.6334 2.2481 -0.9275 59 
11.3704 2.7863 -0.9275 38 
11.1147 2.1534 -0.9274 40 
11.0268 2.1471 -0.9274 40 
11.0711 2.1467 -0.9274 40 
11.0062 2.1449 -0.9274 40 
11.3999 2.2053 -0.9273 56 
11.2743 2.7759 -0.9273 41 
10.9411 2.1358 -0.9273 49 
11.3193 2.7832 -0.9272 41 
11.2204 2.1724 -0.9272 34 
11.0654 2.1492 -0.927 40 
11.2509 2.7627 -0.927 41 
11.2962 2.77 -0.927 41 
11.1147 2.7403 -0.9269 54 
11.2724 2.7661 -0.9269 41 
11.042 2.1483 -0.9268 40 
11.291 2.7782 -0.9268 41 
10.9525 2.138 -0.9265 49 
10.9735 2.1403 -0.9265 49 
11.0141 2.1464 -0.9263 40 
11.0576 2.1459 -0.9263 40 
11.6401 2.2494 -0.9262 59 
11.2615 2.7671 -0.9261 41 
11.3735 2.7871 -0.9259 38 
11.0378 2.7232 -0.9259 61 
11.4039 2.206 -0.9258 56 
11.028 2.1473 -0.9257 40 
11.0708 2.1467 -0.9256 40 
11.2227 2.1728 -0.9256 34 
11.1146 2.1533 -0.9256 40 
11.0694 2.1518 -0.9255 40 
11.3196 2.7833 -0.9254 41 
11.7427 2.8775 -0.9254 60 
11.2977 2.7704 -0.9253 41 
11.0657 2.1493 -0.9252 40 
11.2731 2.7662 -0.9252 41 
11.2511 2.7627 -0.9252 41 
11.1157 2.7406 -0.9252 54 
11.2705 2.775 -0.9251 41 
11.6494 2.2512 -0.9251 62 
11.0412 2.1481 -0.925 40 
10.9544 2.1384 -0.9249 49 
11.0188 2.1474 -0.9249 40 
11.2657 2.7682 -0.9246 41 
11.2867 2.7771 -0.9246 41 
11.0576 2.1459 -0.9245 40 
10.9693 2.1395 -0.9243 49 
11.3766 2.7878 -0.9243 38 
11.407 2.2066 -0.9242 56 
11.0375 2.7232 -0.9241 61 
11.2253 2.1733 -0.924 34 
11.0297 2.1477 -0.924 40 
11.116 2.1536 -0.9239 40 
11.0714 2.1468 -0.9238 40 
11.6558 2.2525 -0.9237 62 
11.2979 2.7704 -0.9235 41 
11.117 2.7409 -0.9235 54 
11.2724 2.7755 -0.9235 41 
11.0222 2.148 -0.9235 40 
11.2751 2.7667 -0.9235 41 
11.2521 2.763 -0.9235 41 
11.0657 2.1511 -0.9234 40 
11.0658 2.1493 -0.9234 40 
11.7388 2.8766 -0.9232 60 
11.2695 2.7691 -0.9231 41 
11.3135 2.7818 -0.9231 41 
11.0402 2.1479 -0.9231 40 
10.9516 2.1378 -0.9229 49 
11.2872 2.7772 -0.9228 41 
11.3797 2.7886 -0.9227 38 
11.057 2.1458 -0.9227 40 
11.0337 2.1485 -0.9226 40 
11.4101 2.2072 -0.9226 56 
11.2275 2.1737 -0.9223 34 
10.9658 2.1388 -0.9223 49 
11.1177 2.1539 -0.9223 40 
11.037 2.723 -0.9222 61 
11.072 2.1469 -0.9221 40 
11.6579 2.2529 -0.922 62 
11.2773 2.7766 -0.922 41 
11.0253 2.1486 -0.9219 40 
11.1187 2.7413 -0.9218 54 
11.277 2.7672 -0.9218 41 
11.2541 2.7634 -0.9218 41 
11.0663 2.1494 -0.9217 40 
11.299 2.7707 -0.9217 41 
11.2734 2.7701 -0.9216 41 
11.0631 2.1506 -0.9214 40 
11.2911 2.7782 -0.9213 41 
11.0386 2.1494 -0.9212 40 
11.3836 2.7896 -0.9212 38 
11.0385 2.1476 -0.9212 40 
11.7363 2.876 -0.9211 60 
11.4134 2.2079 -0.921 56 
11.0574 2.1459 -0.9209 40 
10.948 2.1371 -0.9208 49 
11.2294 2.1741 -0.9207 34 
11.1187 2.1541 -0.9206 40 
11.0376 2.7232 -0.9205 61 
10.9639 2.1384 -0.9204 49 
11.0266 2.1489 -0.9203 40 
11.0723 2.147 -0.9203 40 
11.3015 2.7789 -0.9203 41 
11.2791 2.7771 -0.9203 41 
11.2571 2.7642 -0.9202 41 
11.658 2.2529 -0.9201 62 
11.1206 2.7418 -0.9201 54 
11.3007 2.7711 -0.92 41 
11.2772 2.7672 -0.92 41 
11.2768 2.7709 -0.92 41 
11.0668 2.1495 -0.9199 40 
11.0428 2.1502 -0.9198 40 
11.2949 2.7791 -0.9197 41 
11.3876 2.7905 -0.9197 38 
11.0606 2.1501 -0.9195 40 
11.4161 2.2084 -0.9194 56 
11.0375 2.1474 -0.9193 40 
11.0584 2.1461 -0.9192 40 
11.7348 2.8756 -0.9191 60 
11.2295 2.1741 -0.9189 34 
10.9458 2.1367 -0.9189 49 
11.0386 2.7234 -0.9188 61 
11.1183 2.154 -0.9188 40 
11.073 2.1471 -0.9186 40 
11.2597 2.7648 -0.9186 41 
11.123 2.7424 -0.9185 54 
11.2804 2.7718 -0.9185 41 
10.9622 2.1381 -0.9185 49 
11.0256 2.1487 -0.9184 40 
11.0469 2.151 -0.9184 40 
11.3019 2.7714 -0.9183 41 
11.2755 2.7762 -0.9182 41 
11.2771 2.7672 -0.9182 41 
11.0671 2.1495 -0.9182 40 
11.6569 2.2527 -0.9181 62 
11.2966 2.7795 -0.918 41 
11.3896 2.791 -0.918 38 
11.4173 2.2086 -0.9177 56 
11.2446 2.7705 -0.9176 63 
11.2906 2.7762 -0.9175 41 
11.059 2.1462 -0.9175 40 
11.0366 2.1472 -0.9175 40 
11.0586 2.1497 -0.9175 40 
11.7341 2.8754 -0.9171 60 
11.23 2.1742 -0.9171 34 
11.0398 2.7237 -0.9171 61 
11.1184 2.1541 -0.917 40 
10.9449 2.1365 -0.917 49 
11.0741 2.1473 -0.9169 40 
11.0501 2.1517 -0.9169 40 
11.2832 2.7725 -0.9169 41 
11.1247 2.7428 -0.9169 54 
11.2614 2.7652 -0.9169 41 
11.0239 2.1484 -0.9165 40 
11.3023 2.7715 -0.9165 41 
11.2775 2.7673 -0.9164 41 
10.9587 2.1374 -0.9164 49 
11.0672 2.1496 -0.9164 40 
11.6552 2.2523 -0.9161 62 
11.3897 2.791 -0.9161 38 
11.2958 2.7793 -0.9161 41 
11.4184 2.2088 -0.9159 56 
11.0579 2.1496 -0.9157 40 
11.059 2.1462 -0.9157 40 
11.2677 2.7743 -0.9157 41 
11.0348 2.1469 -0.9156 40 
11.0409 2.724 -0.9154 61 
11.2872 2.7753 -0.9154 41 
11.1195 2.1543 -0.9153 40 
11.2301 2.1742 -0.9153 34 
10.9453 2.1366 -0.9153 49 
11.0517 2.1519 -0.9152 40 
11.2632 2.7657 -0.9152 41 
11.2387 2.769 -0.9152 63 
11.0753 2.1475 -0.9152 40 
11.1254 2.743 -0.9151 54 
11.2842 2.7727 -0.9151 41 
11.7326 2.8751 -0.9151 60 
11.3033 2.7718 -0.9147 41 
11.0243 2.1484 -0.9147 40 
11.0671 2.1495 -0.9146 40 
11.2791 2.7677 -0.9146 41 
11.4205 2.2092 -0.9143 56 
10.9538 2.1365 -0.9142 49 
11.3892 2.7909 -0.9142 38 
11.2933 2.7787 -0.9141 41 
11.6526 2.2518 -0.9141 62 
11.0587 2.1461 -0.9139 40 
11.057 2.1494 -0.9138 40 
11.2896 2.7759 -0.9138 41 
11.0334 2.1466 -0.9137 40 
11.0423 2.7243 -0.9137 61 
11.1209 2.1545 -0.9136 40 
11.2307 2.1743 -0.9136 34 
10.9463 2.1368 -0.9136 49 
11.0535 2.1523 -0.9136 40 
11.265 2.7661 -0.9135 41 
11.0758 2.1476 -0.9135 40 
11.2398 2.7693 -0.9135 63 
11.1264 2.7432 -0.9134 54 
11.26 2.7724 -0.9133 41 
11.2816 2.7721 -0.9131 41 
11.0242 2.1484 -0.913 40 
11.3048 2.7721 -0.913 41 
11.2808 2.7681 -0.913 41 
11.7308 2.8746 -0.913 60 
11.0665 2.1494 -0.9128 40 
11.4225 2.2096 -0.9126 56 
11.3894 2.791 -0.9124 38 
11.294 2.777 -0.9123 41 
10.9523 2.1362 -0.9123 49 
11.06 2.1464 -0.9122 40 
11.2353 2.1752 -0.9121 34 
11.2895 2.7778 -0.912 41 
11.0429 2.7245 -0.912 61 
10.9483 2.1372 -0.912 49 
11.0557 2.1491 -0.9119 40 
11.1219 2.1547 -0.9119 40 
11.6496 2.2512 -0.9119 62 
11.055 2.1526 -0.9119 40 
11.2419 2.7698 -0.9118 63 
11.0763 2.1477 -0.9118 40 
11.2662 2.7664 -0.9118 41 
11.0325 2.1464 -0.9118 40 
11.1279 2.7436 -0.9117 54 
11.3067 2.7726 -0.9113 41 
11.2814 2.7683 -0.9112 41 
11.0234 2.1482 -0.9111 40 
11.255 2.7712 -0.911 41 
11.7291 2.8742 -0.911 60 
11.4249 2.2101 -0.9109 56 
11.0647 2.1491 -0.9109 40 
11.2757 2.7706 -0.9108 41 
11.298 2.778 -0.9108 41 
10.9552 2.1368 -0.9108 49 
11.3909 2.7913 -0.9107 38 
11.0617 2.1467 -0.9106 40 
10.9507 2.1376 -0.9105 49 
11.2373 2.1756 -0.9105 34 
11.0426 2.7244 -0.9101 61 
11.0549 2.1526 -0.9101 40 
11.1221 2.1548 -0.9101 40 
11.0764 2.1477 -0.91 40 
11.1294 2.7439 -0.91 54 
11.2414 2.7697 -0.91 63 
11.649 2.2511 -0.91 62 
11.054 2.1488 -0.91 40 
11.2669 2.7666 -0.91 41 
11.0312 2.1462 -0.9099 40 
11.309 2.7731 -0.9097 41 
11.2828 2.7761 -0.9096 41 
10.9607 2.1378 -0.9095 49 
11.2824 2.7685 -0.9094 41 
11.4271 2.2105 -0.9093 56 
11.022 2.148 -0.9092 40 
11.0646 2.1491 -0.9091 40 
11.3941 2.7921 -0.9091 38 
11.2536 2.7708 -0.9091 41 
11.3001 2.7785 -0.9091 41 
11.7265 2.8735 -0.9089 60 
11.0634 2.147 -0.9089 40 
11.2371 2.1756 -0.9087 34 
10.9513 2.1378 -0.9087 49 
10.9705 2.1397 -0.9085 -1 
11.2705 2.7693 -0.9085 41 
11.1228 2.1549 -0.9084 40 
11.0551 2.1526 -0.9084 40 
11.0432 2.7246 -0.9084 61 
11.131 2.7444 -0.9083 54 
11.6503 2.2514 -0.9083 62 
11.0765 2.1478 -0.9082 40 
11.2676 2.7667 -0.9082 41 
11.0302 2.146 -0.9081 40 
11.0517 2.1484 -0.908 40 
11.3098 2.7733 -0.9079 41 
11.2372 2.7686 -0.9078 63 
11.4299 2.211 -0.9077 56 
11.2832 2.7687 -0.9076 41 
10.9805 2.1417 -0.9076 40 
11.3974 2.7929 -0.9075 38 
11.2782 2.775 -0.9074 41 
11.0654 2.1492 -0.9074 40 
11.3002 2.7785 -0.9073 41 
11.0653 2.1474 -0.9073 40 
11.2534 2.7708 -0.9072 41 
11.019 2.1474 -0.9072 40 
10.9518 2.1379 -0.907 49 
11.0454 2.7251 -0.9068 61 
11.2371 2.1756 -0.9068 34 
11.7244 2.873 -0.9068 60 
11.1243 2.1552 -0.9067 40 
11.0561 2.1528 -0.9067 40 
11.1319 2.7446 -0.9066 54 
11.0779 2.148 -0.9065 40 
11.6518 2.2517 -0.9065 62 
11.2673 2.7685 -0.9064 41 
11.0516 2.1483 -0.9063 40 
11.0297 2.1459 -0.9063 40 
11.2663 2.7664 -0.9063 41 
10.9856 2.1427 -0.9063 40 
11.3097 2.7733 -0.9061 41 
11.4331 2.2117 -0.9061 56 
11.282 2.7684 -0.9057 41 
11.0667 2.1476 -0.9056 40 
11.0645 2.149 -0.9055 40 
11.2764 2.7746 -0.9054 41 
11.2529 2.7706 -0.9054 41 
11.2991 2.7782 -0.9053 41 
10.9518 2.1379 -0.9053 49 
11.229 2.7666 -0.9053 63 
11.0159 2.1468 -0.9052 40 
11.0466 2.7254 -0.9051 61 
11.2377 2.1757 -0.9051 34 
11.1257 2.1555 -0.905 40 
11.0564 2.1529 -0.9049 40 
11.1331 2.7449 -0.9049 54 
11.0793 2.1483 -0.9049 40 
11.7248 2.8731 -0.9049 60 
11.6532 2.2519 -0.9047 62 
10.988 2.1431 -0.9047 40 
11.0534 2.1487 -0.9046 40 
11.2675 2.7686 -0.9046 41 
11.4382 2.2126 -0.9046 56 
11.0303 2.146 -0.9045 40 
11.2639 2.7658 -0.9043 41 
11.3097 2.7733 -0.9042 41 
11.0678 2.1479 -0.904 40 
11.2803 2.768 -0.9037 41 
11.2532 2.7707 -0.9036 41 
11.0626 2.1486 -0.9036 40 
11.2751 2.7742 -0.9035 41 
11.1259 2.1555 -0.9033 40 
11.2962 2.7775 -0.9033 41 
11.0149 2.1466 -0.9033 40 
11.2379 2.1757 -0.9033 34 
11.0463 2.7253 -0.9032 61 
11.4427 2.2135 -0.9032 56 
11.0798 2.1484 -0.9031 40 
11.1339 2.7451 -0.9031 54 
11.2714 2.7696 -0.9031 41 
11.7252 2.8732 -0.9031 60 
10.989 2.1433 -0.903 40 
11.0548 2.1525 -0.903 40 
11.6538 2.2521 -0.9029 62 
11.2204 2.7645 -0.9028 64 
11.0533 2.1487 -0.9028 40 
11.0313 2.1462 -0.9028 40 
11.3113 2.7737 -0.9025 41 
11.2633 2.7657 -0.9024 41 
11.0687 2.148 -0.9022 40 
11.2546 2.7711 -0.9019 41 
11.2784 2.7675 -0.9017 41 
11.276 2.7707 -0.9016 41 
11.4458 2.2141 -0.9016 56 
11.0606 2.1483 -0.9016 40 
11.0153 2.1467 -0.9016 40 
11.2746 2.7741 -0.9016 41 
11.126 2.1555 -0.9015 40 
11.0456 2.7251 -0.9014 61 
11.2366 2.1755 -0.9014 34 
11.0806 2.1485 -0.9014 40 
11.1336 2.745 -0.9013 54 
10.989 2.1433 -0.9012 40 
11.0327 2.1464 -0.9012 40 
11.7238 2.8729 -0.9011 60 
11.6544 2.2522 -0.9011 62 
11.2921 2.7765 -0.9011 41 
11.0524 2.1521 -0.901 40 
11.0516 2.1483 -0.9009 40 
11.3125 2.774 -0.9008 41 
11.2162 2.7635 -0.9006 64 
11.2637 2.7658 -0.9006 41 
11.0695 2.1482 -0.9005 40 
11.258 2.7719 -0.9003 41 
11.28 2.7717 -0.9001 41 
11.4482 2.2146 -0.8999 56 
11.0156 2.1467 -0.8998 40 
11.1272 2.1558 -0.8998 40 
11.2745 2.7741 -0.8997 41 
11.0821 2.1488 -0.8997 40 
11.0589 2.1479 -0.8997 40 
11.2763 2.767 -0.8997 41 
11.0446 2.7249 -0.8995 61 
10.9891 2.1433 -0.8995 40 
11.2357 2.1753 -0.8995 34 
11.0328 2.1465 -0.8994 40 
11.1333 2.7449 -0.8994 54 
11.6552 2.2523 -0.8993 62 
11.05 2.1516 -0.8991 40 
11.7235 2.8728 -0.8991 60 
11.0499 2.148 -0.899 40 
11.3117 2.7738 -0.8989 41 
11.2866 2.7752 -0.8988 41 
11.2619 2.7729 -0.8988 41 
11.0701 2.1483 -0.8988 40 
11.2634 2.7657 -0.8987 41 
11.214 2.7629 -0.8986 64 
11.2835 2.7725 -0.8985 41 
11.1289 2.1561 -0.8981 40 
11.4483 2.2146 -0.8981 56 
11.0151 2.1466 -0.898 40 
11.0828 2.149 -0.898 40 
11.0584 2.1478 -0.8979 40 
11.2744 2.774 -0.8979 41 
11.2747 2.7666 -0.8978 41 
11.0355 2.147 -0.8978 40 
10.9896 2.1434 -0.8977 40 
11.2353 2.1752 -0.8977 34 
11.0431 2.7245 -0.8976 61 
11.1334 2.7449 -0.8976 54 
11.657 2.2527 -0.8975 62 
11.0493 2.1515 -0.8972 40 
11.7236 2.8728 -0.8972 60 
11.2647 2.7735 -0.8972 41 
11.2655 2.7662 -0.8971 41 
11.0479 2.1476 -0.8971 40 
11.07 2.1483 -0.897 40 
11.3105 2.7735 -0.8969 41 
11.2849 2.7729 -0.8968 41 
11.2135 2.7628 -0.8968 64 
11.2824 2.7741 -0.8967 41 
11.1311 2.1565 -0.8965 40 
11.0386 2.1476 -0.8963 40 
11.0837 2.1491 -0.8963 40 
11.0145 2.1465 -0.8962 40 
11.276 2.7745 -0.8962 41 
11.447 2.2143 -0.8961 56 
11.0579 2.1477 -0.8961 40 
11.2749 2.7667 -0.896 41 
10.9891 2.1433 -0.8959 40 
11.1342 2.7451 -0.8959 54 
11.6589 2.253 -0.8958 62 
11.2343 2.175 -0.8958 34 
11.0422 2.7243 -0.8957 61 
11.2704 2.7674 -0.8956 41 
11.0499 2.1516 -0.8955 40 
11.2661 2.7739 -0.8954 41 
11.7238 2.8729 -0.8953 60 
11.0697 2.1482 -0.8952 40 
11.2861 2.7732 -0.8951 41 
11.0463 2.1473 -0.8951 40 
11.2138 2.7629 -0.895 64 
11.1326 2.1568 -0.8949 40 
11.3086 2.773 -0.8949 41 
11.2808 2.7737 -0.8947 41 
11.0401 2.1479 -0.8947 40 
11.2791 2.7752 -0.8946 41 
11.0844 2.1493 -0.8946 40 
11.0143 2.1465 -0.8944 40 
11.1371 2.7458 -0.8943 54 
11.0581 2.1478 -0.8943 40 
11.4455 2.214 -0.8942 56 
11.2751 2.7686 -0.8942 41 
11.2748 2.7666 -0.8941 41 
11.6607 2.2534 -0.8941 62 
10.9875 2.143 -0.894 40 
11.2349 2.1752 -0.894 34 
11.0424 2.7243 -0.8939 61 
11.0495 2.1515 -0.8937 40 
11.2667 2.774 -0.8936 41 
11.0696 2.1482 -0.8934 40 
11.7235 2.8728 -0.8934 60 
11.0454 2.1471 -0.8933 40 
11.2853 2.773 -0.8932 41 
11.2149 2.7631 -0.8932 64 
11.1325 2.1568 -0.8931 40 
11.0414 2.1481 -0.893 40 
11.2825 2.776 -0.893 41 
11.3067 2.7726 -0.8929 41 
11.1425 2.7472 -0.8929 54 
11.0842 2.1492 -0.8928 40 
11.2794 2.7734 -0.8927 41 
11.2776 2.7692 -0.8925 41 
11.0128 2.1462 -0.8925 40 
11.0577 2.1477 -0.8925 40 
11.2751 2.7667 -0.8923 41 
11.4454 2.214 -0.8923 56 
11.2361 2.1754 -0.8923 34 
10.9864 2.1428 -0.8922 40 
11.6612 2.2535 -0.8922 62 
11.042 2.7242 -0.8921 61 
11.0481 2.1512 -0.8918 40 
11.2665 2.774 -0.8918 41 
11.1495 2.7489 -0.8917 65 
11.218 2.7639 -0.8916 64 
11.0693 2.1482 -0.8916 40 
11.2858 2.7769 -0.8915 41 
11.7232 2.8727 -0.8915 60 
11.0442 2.1469 -0.8914 40 
11.0429 2.1484 -0.8913 40 
11.1332 2.1569 -0.8913 40 
11.2827 2.7723 -0.8911 41 
11.3062 2.7724 -0.8911 41 
11.0847 2.1493 -0.891 40 
11.2803 2.7699 -0.8909 41 
11.2769 2.7728 -0.8907 41 
11.4465 2.2142 -0.8906 56 
11.0567 2.1475 -0.8906 40 
11.2373 2.1756 -0.8906 34 
11.0111 2.1458 -0.8906 40 
11.2761 2.7669 -0.8905 41 
11.6615 2.2535 -0.8904 62 
11.0415 2.7241 -0.8903 61 
11.1553 2.7503 -0.8903 65 
10.9845 2.1424 -0.8902 40 
11.2217 2.7648 -0.8901 64 
11.0475 2.1511 -0.89 40 
11.0467 2.1492 -0.8899 40 
11.2662 2.7739 -0.8899 41 
11.0688 2.148 -0.8898 40 
11.2876 2.7773 -0.8898 41 
11.1351 2.1573 -0.8897 40 
11.723 2.8727 -0.8896 60 
11.0419 2.1464 -0.8895 40 
11.0862 2.1496 -0.8894 40 
11.3068 2.7726 -0.8893 41 
11.2832 2.7706 -0.8893 41 
11.2811 2.7719 -0.8892 41 
11.2374 2.1756 -0.8888 34 
11.0557 2.1473 -0.8888 40 
11.4471 2.2143 -0.8888 56 
11.2755 2.7724 -0.8888 41 
11.2775 2.7673 -0.8888 41 
11.1578 2.7509 -0.8887 65 
11.01 2.1456 -0.8887 40 
11.6624 2.2537 -0.8886 62 
11.2238 2.7653 -0.8885 64 
11.042 2.7242 -0.8885 61 
10.9819 2.1419 -0.8883 40 
11.0479 2.1512 -0.8882 40 
11.2656 2.7738 -0.8881 41 
11.0468 2.1492 -0.8881 40 
11.2889 2.7776 -0.888 41 
11.1366 2.1576 -0.888 40 
11.0689 2.1481 -0.888 40 
11.7231 2.8727 -0.8877 60 
11.0866 2.1497 -0.8876 40 
11.2845 2.7709 -0.8876 41 
11.0401 2.1461 -0.8875 40 
11.307 2.7726 -0.8874 41 
11.2782 2.7712 -0.8871 41 
11.2788 2.7676 -0.8871 41 
11.0561 2.1474 -0.887 40 
11.238 2.1758 -0.887 34 
11.4465 2.2142 -0.8869 56 
10.8992 2.1276 -0.8869 -1 
11.2755 2.7724 -0.8869 41 
11.1576 2.7509 -0.8869 65 
11.0082 2.1453 -0.8868 40 
11.664 2.254 -0.8868 62 
11.2248 2.7656 -0.8867 64 
11.0418 2.7242 -0.8867 61 
11.0483 2.1513 -0.8865 40 
11.0478 2.1494 -0.8864 40 
10.9793 2.1414 -0.8863 40 
11.0701 2.1483 -0.8863 40 
11.1379 2.1578 -0.8863 40 
11.2895 2.7777 -0.8862 41 
11.2645 2.7735 -0.8861 41 
10.9091 2.1295 -0.8859 66 
11.2847 2.7709 -0.8858 41 
11.0865 2.1497 -0.8858 40 
11.7241 2.8729 -0.8858 60 
11.0391 2.1459 -0.8857 40 
11.3072 2.7727 -0.8856 41 
11.28 2.7679 -0.8854 41 
11.2408 2.1763 -0.8854 34 
11.0569 2.1475 -0.8853 40 
11.2752 2.7723 -0.8851 41 
11.2756 2.7706 -0.8851 41 
11.4462 2.2142 -0.885 56 
11.6652 2.2542 -0.885 62 
11.2253 2.7657 -0.8849 64 
11.1557 2.7504 -0.8849 65 
11.0053 2.1447 -0.8848 40 
11.0498 2.1498 -0.8848 40 
11.0718 2.1486 -0.8847 40 
11.1397 2.1582 -0.8847 40 
11.0476 2.1511 -0.8846 40 
11.0367 2.7229 -0.8845 61 
10.9132 2.1303 -0.8845 66 
10.9778 2.1411 -0.8844 40 
11.2893 2.7777 -0.8844 41 
11.2639 2.7733 -0.8843 41 
11.0869 2.1497 -0.8841 40 
11.7246 2.8731 -0.884 60 
11.308 2.7729 -0.8838 41 
11.0378 2.1456 -0.8838 40 
11.2837 2.7707 -0.8838 41 
11.2415 2.1764 -0.8837 34 
11.2817 2.7683 -0.8837 41 
11.0574 2.1476 -0.8836 40 
11.2752 2.7724 -0.8832 41 
11.0524 2.1503 -0.8832 40 
11.1565 2.7506 -0.8832 65 
11.4464 2.2142 -0.8832 56 
11.2747 2.7703 -0.8832 41 
11.2266 2.766 -0.8832 64 
11.6643 2.2541 -0.8831 62 
10.917 2.1311 -0.883 66 
11.0729 2.1488 -0.883 40 
11.1407 2.1584 -0.8829 40 
11.0018 2.144 -0.8828 40 
11.0451 2.1507 -0.8827 40 
10.9767 2.1409 -0.8825 40 
11.2889 2.7776 -0.8825 41 
11.264 2.7734 -0.8824 41 
11.0872 2.1498 -0.8823 40 
11.3105 2.7735 -0.8822 41 
11.7247 2.8731 -0.8821 60 
11.0373 2.1455 -0.882 40 
11.2839 2.7689 -0.882 41 
11.2829 2.7705 -0.8819 41 
11.2422 2.1765 -0.8819 34 
11.1612 2.7518 -0.8817 65 
11.0572 2.1476 -0.8817 40 
11.2779 2.773 -0.8816 41 
11.0228 2.7195 -0.8816 -1 
10.9204 2.1317 -0.8816 66 
11.0528 2.1503 -0.8815 40 
11.2276 2.7663 -0.8814 64 
11.4465 2.2142 -0.8813 56 
11.2724 2.7698 -0.8812 41 
11.1417 2.1586 -0.8812 40 
11.0726 2.1488 -0.8812 40 
11.6624 2.2537 -0.8811 62 
10.9988 2.1434 -0.8807 40 
11.2891 2.7776 -0.8807 41 
11.0419 2.15 -0.8806 40 
10.9749 2.1406 -0.8806 40 
11.2633 2.7732 -0.8806 41 
11.3118 2.7738 -0.8805 41 
11.0872 2.1498 -0.8805 40 
11.2857 2.7693 -0.8803 41 
11.0369 2.1455 -0.8802 40 
11.7255 2.8733 -0.8802 60 
11.2827 2.7742 -0.8802 41 
11.1651 2.7527 -0.8802 65 
11.2437 2.1768 -0.8802 34 
11.2815 2.7701 -0.88 41 
11.0568 2.1475 -0.8799 40 
10.9216 2.1319 -0.8799 66 
11.2275 2.7662 -0.8796 64 
11.0506 2.1499 -0.8795 40 
11.1428 2.1588 -0.8795 40 
11.4465 2.2142 -0.8795 56 
11.0719 2.1486 -0.8793 40 
11.2714 2.7695 -0.8792 41 
11.6599 2.2532 -0.879 62 
10.9749 2.1406 -0.8789 40 
11.2891 2.7777 -0.8789 41 
11.0877 2.1499 -0.8788 40 
11.2874 2.7754 -0.8787 41 
10.9953 2.1427 -0.8787 40 
11.3123 2.7739 -0.8787 41 
11.2872 2.7697 -0.8786 41 
11.2456 2.1772 -0.8786 34 
11.2608 2.7726 -0.8785 41 
11.0372 2.1491 -0.8785 40 
11.727 2.8737 -0.8784 60 
11.1633 2.7523 -0.8783 65 
11.0358 2.1452 -0.8783 40 
11.0029 2.7146 -0.8782 -1 
10.9218 2.132 -0.8782 66 
11.0563 2.1474 -0.8781 40 
11.2798 2.7697 -0.878 41 
11.1433 2.1589 -0.8778 40 
11.2264 2.766 -0.8777 64 
11.0493 2.1497 -0.8776 40 
11.4462 2.2142 -0.8776 56 
11.0708 2.1484 -0.8775 40 
11.2716 2.7696 -0.8774 41 
10.9759 2.1407 -0.8772 40 
11.2903 2.7761 -0.8771 41 
11.3142 2.7744 -0.877 41 
11.2893 2.7777 -0.877 41 
11.0876 2.1499 -0.877 40 
11.2881 2.7699 -0.8768 41 
11.6561 2.2525 -0.8768 62 
11.2462 2.1773 -0.8768 34 
11.729 2.8741 -0.8767 60 
11.9103 2.9146 -0.8766 -1 
10.9916 2.142 -0.8766 40 
11.2567 2.7716 -0.8764 41 
11.0345 2.145 -0.8764 40 
11.0334 2.1484 -0.8764 40 
11.0551 2.1472 -0.8762 40 
11.2788 2.7695 -0.8761 41 
10.9988 2.7136 -0.8761 -1 
10.9173 2.1311 -0.876 66 
11.1574 2.7508 -0.876 65 
11.1437 2.1589 -0.876 40 
11.0501 2.1498 -0.8759 40 
11.0175 2.7182 -0.8758 -1 
11.4466 2.2142 -0.8758 56 
11.0705 2.1484 -0.8757 40 
11.2248 2.7656 -0.8757 64 
11.2715 2.7696 -0.8756 41 
11.2939 2.7769 -0.8755 41 
10.9754 2.1407 -0.8754 40 
11.3159 2.7748 -0.8753 41 
11.0343 2.7223 -0.8753 61 
11.2896 2.7778 -0.8752 41 
11.0867 2.1497 -0.8751 40 
11.2461 2.1773 -0.875 34 
11.2886 2.77 -0.875 41 
11.7302 2.8744 -0.8748 60 
10.9887 2.1415 -0.8746 40 
11.0315 2.148 -0.8745 40 
11.0332 2.1447 -0.8745 40 
11.6507 2.2514 -0.8745 67 
11.0545 2.1471 -0.8744 40 
11.279 2.7695 -0.8743 41 
11.2532 2.7707 -0.8743 41 
11.1432 2.1588 -0.8742 40 
11.4474 2.2144 -0.874 56 
11.0491 2.1496 -0.874 40 
11.155 2.7502 -0.874 65 
11.0706 2.1484 -0.8739 40 
11.2717 2.7696 -0.8738 41 
11.899 2.9118 -0.8738 68 
11.294 2.777 -0.8737 41 
11.2208 2.7646 -0.8736 64 
10.9736 2.1403 -0.8735 40 
11.0342 2.7223 -0.8735 -1 
11.3169 2.7751 -0.8735 41 
11.0868 2.1497 -0.8734 40 
11.289 2.7776 -0.8733 41 
11.2467 2.1774 -0.8732 34 
11.2883 2.7699 -0.8732 41 
11.7306 2.8745 -0.873 60 
11.0328 2.1446 -0.8727 40 
10.9852 2.1408 -0.8726 40 
11.0546 2.1471 -0.8726 40 
11.2791 2.7696 -0.8725 41 
11.0294 2.1476 -0.8725 40 
11.1434 2.1589 -0.8724 40 
11.6451 2.2504 -0.8723 67 
11.4485 2.2146 -0.8723 56 
11.0492 2.1496 -0.8723 40 
11.2504 2.77 -0.8722 41 
11.1554 2.7503 -0.8722 65 
11.0707 2.1484 -0.8721 40 
11.2727 2.7698 -0.872 41 
11.295 2.7772 -0.8719 41 
11.3187 2.7755 -0.8718 41 
11.0884 2.15 -0.8717 40 
11.8943 2.9107 -0.8715 68 
10.97 2.1396 -0.8714 40 
11.2156 2.7633 -0.8714 64 
11.247 2.1775 -0.8714 34 
11.2866 2.777 -0.8713 41 
11.2878 2.7698 -0.8713 41 
11.0336 2.1448 -0.871 40 
11.7301 2.8744 -0.871 60 
11.0545 2.1471 -0.8709 40 
11.1446 2.1591 -0.8707 40 
11.45 2.2149 -0.8706 56 
11.2782 2.7693 -0.8706 41 
11.1576 2.7509 -0.8705 65 
10.9807 2.1399 -0.8705 40 
11.0264 2.147 -0.8705 40 
11.0712 2.1485 -0.8704 40 
11.0483 2.1495 -0.8704 40 
11.2488 2.7696 -0.8703 41 
11.2739 2.7701 -0.8703 41 
11.3217 2.7762 -0.8702 41 
11.6417 2.2497 -0.8701 67 
11.2953 2.7773 -0.8701 41 
11.0896 2.1503 -0.87 40 
11.248 2.1777 -0.8697 34 
11.8914 2.91 -0.8694 68 
11.2878 2.7698 -0.8694 41 
11.2836 2.7763 -0.8693 41 
11.003 2.7146 -0.8692 -1 
10.9641 2.1384 -0.8692 40 
11.2114 2.7623 -0.8692 69 
11.033 2.1447 -0.8692 40 
11.7294 2.8742 -0.8691 60 
11.1619 2.7519 -0.8691 65 
11.0533 2.1468 -0.869 40 
11.1452 2.1592 -0.869 40 
11.4515 2.2152 -0.8688 56 
11.2779 2.7711 -0.8687 41 
11.2771 2.769 -0.8686 41 
11.0713 2.1485 -0.8686 40 
11.3236 2.7767 -0.8685 41 
11.0469 2.1492 -0.8685 40 
11.023 2.1463 -0.8685 40 
10.9773 2.1392 -0.8684 40 
11.296 2.7775 -0.8683 41 
11.2474 2.7693 -0.8683 41 
11.641 2.2496 -0.8682 67 
11.0897 2.1503 -0.8682 40 
11.2491 2.1779 -0.868 34 
11.1685 2.7535 -0.8678 65 
11.2887 2.77 -0.8677 41 
11.8899 2.9096 -0.8674 68 
11.2847 2.7728 -0.8674 41 
11.0315 2.1444 -0.8673 40 
11.2086 2.7616 -0.8672 69 
11.1458 2.1593 -0.8672 40 
11.2804 2.7755 -0.8672 41 
11.0517 2.1465 -0.8671 40 
11.7288 2.8741 -0.8671 60 
10.9588 2.1374 -0.867 70 
11.4522 2.2153 -0.867 56 
11.0716 2.1486 -0.8668 40 
11.276 2.7688 -0.8667 41 
11.3239 2.7768 -0.8667 41 
11.0456 2.1489 -0.8667 40 
10.9765 2.1391 -0.8666 40 
11.2962 2.7775 -0.8665 41 
11.09 2.1503 -0.8665 40 
11.2457 2.7688 -0.8664 41 
11.0197 2.1457 -0.8664 40 
11.6411 2.2496 -0.8663 67 
11.2499 2.178 -0.8662 34 
11.1723 2.7545 -0.8662 65 
11.2899 2.7741 -0.866 41 
11.2894 2.7702 -0.8659 41 
11.147 2.1596 -0.8655 40 
11.8902 2.9097 -0.8654 68 
11.0301 2.1441 -0.8654 40 
11.0511 2.1464 -0.8653 40 
11.2063 2.761 -0.8652 69 
11.4522 2.2153 -0.8652 56 
11.7279 2.8739 -0.8651 60 
11.2779 2.7749 -0.8651 41 
11.0723 2.1487 -0.8651 40 
10.9769 2.1391 -0.8649 40 
10.9551 2.1367 -0.8649 70 
11.276 2.7688 -0.8649 41 
11.0444 2.1487 -0.8648 40 
11.3241 2.7768 -0.8648 41 
11.0903 2.1504 -0.8647 40 
11.6425 2.2499 -0.8646 67 
11.2957 2.7774 -0.8646 41 
11.0173 2.1452 -0.8645 40 
11.2506 2.1782 -0.8645 34 
11.2921 2.7746 -0.8643 41 
11.242 2.7679 -0.8643 41 
11.1701 2.7539 -0.8642 65 
11.2895 2.7702 -0.8641 41 
11.1482 2.1598 -0.8638 40 
11.8908 2.9098 -0.8636 68 
11.0292 2.1439 -0.8636 40 
11.0506 2.1463 -0.8634 40 
11.0722 2.1487 -0.8633 40 
11.4512 2.2151 -0.8633 56 
11.7269 2.8736 -0.8632 60 
10.9781 2.1394 -0.8632 40 
11.2032 2.7602 -0.8631 69 
11.276 2.7688 -0.8631 41 
11.2757 2.7743 -0.8631 41 
11.3236 2.7767 -0.863 41 
11.8034 2.8904 -0.863 -1 
11.0431 2.1485 -0.8629 40 
11.0907 2.1505 -0.8629 40 
10.9506 2.1358 -0.8628 70 
11.2953 2.7773 -0.8628 41 
11.6436 2.25 -0.8628 67 
11.25 2.178 -0.8626 34 
11.2933 2.7749 -0.8626 41 
11.015 2.1448 -0.8625 40 
11.2905 2.7705 -0.8623 41 
11.2385 2.7671 -0.8622 41 
11.1669 2.7532 -0.8622 65 
11.817 2.8937 -0.8621 71 
11.1482 2.1598 -0.862 40 
11.0293 2.144 -0.8618 40 
11.8925 2.9102 -0.8617 68 
11.0493 2.1461 -0.8616 40 
10.9798 2.1397 -0.8615 40 
11.0722 2.1487 -0.8615 40 
11.7259 2.8734 -0.8612 60 
11.448 2.2145 -0.8612 56 
11.2753 2.7686 -0.8612 41 
11.0917 2.1507 -0.8612 40 
11.2736 2.7738 -0.8611 41 
11.3237 2.7767 -0.8611 41 
11.1996 2.7594 -0.861 69 
11.6444 2.2502 -0.861 67 
11.0407 2.148 -0.8609 40 
11.2947 2.7753 -0.8609 41 
11.2935 2.7768 -0.8608 41 
11.2495 2.1779 -0.8608 34 
10.9462 2.135 -0.8607 70 
11.2913 2.7707 -0.8605 41 
11.0117 2.1441 -0.8605 40 
11.8216 2.8948 -0.8605 71 
11.1662 2.753 -0.8603 65 
11.1475 2.1597 -0.8602 40 
11.0289 2.1439 -0.86 40 
11.2345 2.7661 -0.86 41 
11.8942 2.9106 -0.8599 68 
10.9802 2.1398 -0.8598 40 
11.0724 2.1487 -0.8598 40 
11.0481 2.1458 -0.8597 40 
11.0925 2.1508 -0.8595 40 
11.3247 2.777 -0.8594 41 
11.2759 2.7687 -0.8594 41 
11.7247 2.8731 -0.8592 60 
11.2719 2.7734 -0.8592 41 
11.2957 2.7755 -0.8591 41 
11.2512 2.1783 -0.8591 34 
11.6452 2.2504 -0.8591 67 
11.2936 2.7769 -0.859 41 
11.0391 2.1477 -0.859 40 
11.4432 2.2136 -0.859 56 
11.1956 2.7584 -0.8589 69 
11.8233 2.8953 -0.8587 71 
11.2917 2.7708 -0.8587 41 
10.9419 2.1341 -0.8586 70 
11.1666 2.7531 -0.8585 65 
11.1473 2.1596 -0.8584 40 
11.0084 2.1435 -0.8584 40 
11.0284 2.1438 -0.8582 40 
11.8952 2.9109 -0.8581 68 
11.2316 2.7654 -0.858 41 
11.0726 2.1488 -0.858 40 
10.9797 2.1397 -0.858 40 
11.0927 2.1509 -0.8578 40 
11.0469 2.1456 -0.8578 40 
11.2782 2.7693 -0.8577 41 
11.3247 2.777 -0.8575 41 
11.6481 2.2509 -0.8575 67 
11.2531 2.1787 -0.8574 34 
11.7248 2.8731 -0.8573 60 
11.2707 2.7731 -0.8573 41 
11.0377 2.1474 -0.8572 40 
11.295 2.7753 -0.8572 41 
11.2928 2.7767 -0.8571 41 
11.2932 2.7711 -0.857 41 
11.4381 2.2126 -0.8568 56 
11.8241 2.8955 -0.8568 71 
11.1674 2.7533 -0.8568 65 
11.1916 2.7574 -0.8568 69 
11.0079 2.1434 -0.8566 40 
11.1476 2.1597 -0.8566 40 
10.9375 2.1333 -0.8565 70 
11.0281 2.1437 -0.8564 40 
10.9803 2.1398 -0.8563 40 
11.0738 2.149 -0.8563 40 
11.283 2.7705 -0.8563 41 
11.2311 2.7652 -0.8561 41 
11.8947 2.9108 -0.8561 68 
11.0459 2.1454 -0.856 40 
11.0931 2.1509 -0.856 40 
11.6514 2.2516 -0.8559 67 
11.2539 2.1788 -0.8557 34 
11.3244 2.7769 -0.8557 41 
11.7247 2.8731 -0.8554 60 
11.0378 2.1474 -0.8554 40 
11.2688 2.7726 -0.8553 41 
11.2951 2.7716 -0.8553 41 
11.2942 2.7751 -0.8553 41 
11.2916 2.7764 -0.8551 41 
11.1493 2.16 -0.8549 40 
11.0083 2.1435 -0.8549 40 
11.2891 2.772 -0.8549 41 
11.8242 2.8955 -0.8549 71 
11.436 2.2122 -0.8548 56 
11.1653 2.7528 -0.8548 65 
11.1884 2.7566 -0.8547 69 
11.0289 2.1439 -0.8547 40 
11.0746 2.1492 -0.8546 40 
10.936 2.133 -0.8546 70 
10.9801 2.1398 -0.8545 40 
11.0939 2.1511 -0.8543 40 
11.2299 2.7649 -0.8542 41 
11.0458 2.1454 -0.8542 40 
11.8935 2.9105 -0.8541 68 
11.6533 2.2519 -0.8541 67 
11.2542 2.1789 -0.8539 34 
11.3252 2.7771 -0.8539 41 
11.0376 2.1474 -0.8536 40 
11.2949 2.7734 -0.8535 41 
11.2946 2.7752 -0.8535 41 
11.2959 2.7718 -0.8535 41 
11.7235 2.8728 -0.8534 60 
11.2664 2.7721 -0.8533 41 
11.1508 2.1603 -0.8532 40 
11.2888 2.7757 -0.8531 41 
11.8237 2.8953 -0.853 71 
11.0072 2.1433 -0.853 40 
11.4351 2.212 -0.8529 56 
10.9366 2.1331 -0.8529 70 
11.0288 2.1439 -0.8529 40 
11.0739 2.149 -0.8528 40 
10.9796 2.1397 -0.8527 40 
11.1846 2.7557 -0.8526 69 
11.0949 2.1513 -0.8526 40 
11.161 2.7517 -0.8526 65 
11.0461 2.1454 -0.8524 40 
11.6542 2.2521 -0.8523 67 
11.3269 2.7775 -0.8522 41 
11.8931 2.9104 -0.8521 68 
11.2266 2.7641 -0.8521 41 
11.2545 2.1789 -0.8521 34 
11.2983 2.7743 -0.8519 41 
11.2969 2.772 -0.8518 41 
11.2951 2.7753 -0.8517 41 
11.0364 2.1471 -0.8517 40 
11.1516 2.1605 -0.8515 40 
11.7221 2.8724 -0.8514 60 
10.9386 2.1335 -0.8513 70 
11.2639 2.7714 -0.8512 41 
11.0053 2.1429 -0.8511 40 
11.2871 2.7753 -0.8511 41 
11.0282 2.1437 -0.8511 40 
11.4349 2.212 -0.851 56 
11.8237 2.8954 -0.851 71 
11.0733 2.1489 -0.8509 40 
11.0951 2.1513 -0.8508 40 
10.9783 2.1394 -0.8508 40 
11.0465 2.1455 -0.8507 40 
11.1805 2.7546 -0.8505 69 
11.6556 2.2524 -0.8505 67 
11.1547 2.7502 -0.8504 65 
11.3281 2.7778 -0.8504 41 
11.2548 2.179 -0.8503 34 
11.895 2.9108 -0.8503 68 
11.2996 2.7746 -0.8502 41 
11.2229 2.7632 -0.85 41 
11.2979 2.7723 -0.85 41 
11.2956 2.7755 -0.8499 41 
11.1525 2.1606 -0.8498 40 
11.0345 2.1468 -0.8498 40 
10.9408 2.1339 -0.8497 70 
11.7211 2.8722 -0.8494 60 
11.4371 2.2124 -0.8493 56 
11.2621 2.771 -0.8493 41 
11.0736 2.149 -0.8492 40 
11.0275 2.1436 -0.8492 40 
11.2857 2.7749 -0.8492 41 
11.0037 2.1426 -0.8492 40 
11.824 2.8954 -0.8491 71 
10.9776 2.1393 -0.849 40 
11.0948 2.1512 -0.849 40 
11.046 2.1454 -0.8489 40 
11.6562 2.2525 -0.8487 67 
11.256 2.1792 -0.8486 34 
11.3283 2.7778 -0.8486 41 
11.8974 2.9114 -0.8486 68 
11.3013 2.775 -0.8485 41 
11.1766 2.7537 -0.8484 69 
11.2985 2.7724 -0.8482 41 
10.9427 2.1342 -0.8481 70 
11.2964 2.7757 -0.8481 41 
11.1475 2.7484 -0.848 -1 
11.0335 2.1466 -0.848 40 
11.1527 2.1607 -0.848 40 
11.2193 2.7623 -0.8479 41 
11.4398 2.2129 -0.8477 56 
11.7196 2.8718 -0.8474 60 
11.0024 2.1423 -0.8474 40 
11.2599 2.7704 -0.8473 41 
11.026 2.1433 -0.8473 40 
11.0726 2.1488 -0.8473 40 
11.0954 2.1514 -0.8472 40 
10.977 2.1392 -0.8472 40 
11.2834 2.7743 -0.8472 41 
11.8228 2.8951 -0.8471 71 
11.0456 2.1453 -0.847 40 
11.6567 2.2526 -0.8469 67 
11.2579 2.1796 -0.8469 34 
11.3035 2.7755 -0.8468 41 
11.3293 2.7781 -0.8468 41 
11.8984 2.9116 -0.8467 68 
11.2995 2.7727 -0.8465 41 
10.9444 2.1346 -0.8465 70 
11.1729 2.7528 -0.8463 69 
11.1524 2.1606 -0.8462 40 
11.2957 2.7755 -0.8462 41 
11.4423 2.2134 -0.8461 56 
11.03 2.1459 -0.8459 40 
11.2149 2.7613 -0.8458 41 
11.1416 2.7469 -0.8457 72 
11.0261 2.1433 -0.8456 40 
11.0717 2.1486 -0.8455 40 
11.001 2.142 -0.8455 40 
11.0962 2.1515 -0.8455 40 
10.9768 2.1391 -0.8454 40 
11.2578 2.7699 -0.8453 41 
11.282 2.774 -0.8452 41 
11.2589 2.1798 -0.8452 34 
11.7162 2.871 -0.8452 60 
11.0452 2.1452 -0.8452 40 
11.6577 2.2528 -0.8451 67 
11.8218 2.8949 -0.8451 71 
11.3301 2.7783 -0.845 41 
11.3042 2.7757 -0.845 41 
11.8977 2.9115 -0.8447 68 
10.9443 2.1346 -0.8447 70 
11.301 2.773 -0.8447 41 
11.1531 2.1607 -0.8444 40 
11.4443 2.2138 -0.8444 56 
11.1699 2.752 -0.8442 69 
11.293 2.7748 -0.8442 41 
11.0297 2.1458 -0.8441 40 
11.0272 2.1435 -0.8439 40 
11.096 2.1515 -0.8437 40 
11.2119 2.7605 -0.8437 41 
11.0719 2.1486 -0.8437 40 
11.1377 2.746 -0.8436 72 
10.9988 2.1416 -0.8435 40 
11.2606 2.1801 -0.8435 34 
10.975 2.1388 -0.8435 40 
11.2567 2.7697 -0.8434 41 
11.0448 2.1452 -0.8434 40 
11.2821 2.774 -0.8434 41 
11.6587 2.253 -0.8433 67 
11.8215 2.8948 -0.8432 71 
11.3303 2.7783 -0.8432 41 
11.3046 2.7739 -0.8432 41 
11.3033 2.7755 -0.8431 41 
11.7078 2.8689 -0.8427 60 
11.897 2.9113 -0.8427 68 
11.1537 2.1609 -0.8427 40 
10.9415 2.134 -0.8427 70 
11.4456 2.214 -0.8426 56 
11.2931 2.7748 -0.8424 41 
11.0277 2.1436 -0.8422 40 
11.0282 2.1455 -0.8422 40 
11.1677 2.7515 -0.8422 69 
11.2634 2.1806 -0.8419 34 
11.0716 2.1486 -0.8419 40 
11.0953 2.1513 -0.8419 40 
11.3112 2.7755 -0.8418 41 
11.21 2.76 -0.8417 41 
11.0446 2.1451 -0.8416 40 
11.1344 2.7451 -0.8416 72 
10.9972 2.1413 -0.8416 40 
11.6595 2.2531 -0.8415 67 
10.9722 2.1382 -0.8415 40 
11.281 2.7738 -0.8415 41 
11.3315 2.7786 -0.8415 41 
11.2547 2.7692 -0.8414 41 
11.822 2.8949 -0.8413 71 
11.3031 2.7754 -0.8412 41 
11.154 2.1609 -0.8409 40 
10.9391 2.1335 -0.8408 70 
11.4465 2.2142 -0.8408 56 
11.8974 2.9114 -0.8408 68 
11.318 2.7772 -0.8405 41 
11.2922 2.7746 -0.8405 41 
11.0276 2.1436 -0.8404 40 
11.0267 2.1452 -0.8403 40 
11.1659 2.751 -0.8403 69 
11.2659 2.1811 -0.8403 34 
11.0715 2.1485 -0.8401 40 
11.0951 2.1513 -0.8401 40 
11.0446 2.1451 -0.8399 40 
11.3326 2.7789 -0.8397 41 
11.2077 2.7595 -0.8397 41 
10.9954 2.1409 -0.8397 40 
11.3038 2.7756 -0.8395 41 
10.9691 2.1376 -0.8395 40 
11.2793 2.7733 -0.8395 41 
11.6588 2.253 -0.8395 67 
11.1317 2.7445 -0.8395 72 
11.8229 2.8951 -0.8394 71 
11.251 2.7682 -0.8393 41 
11.1546 2.161 -0.8392 40 
11.4474 2.2144 -0.8391 56 
11.6839 2.8631 -0.8391 -1 
11.8984 2.9117 -0.839 68 
11.3212 2.778 -0.8389 41 
10.938 2.1333 -0.8389 70 
11.2673 2.1814 -0.8386 34 
11.0268 2.1453 -0.8386 40 
11.2911 2.7744 -0.8386 41 
11.0283 2.1437 -0.8386 40 
11.164 2.7506 -0.8383 69 
11.0708 2.1484 -0.8383 40 
11.0955 2.1514 -0.8383 40 
11.0443 2.1451 -0.8381 40 
11.3333 2.7791 -0.8379 41 
10.9938 2.1406 -0.8378 40 
11.2053 2.7589 -0.8377 41 
11.1293 2.7439 -0.8376 72 
11.3033 2.7755 -0.8376 41 
11.6582 2.2529 -0.8376 67 
11.8237 2.8953 -0.8376 71 
10.9661 2.137 -0.8375 40 
11.2769 2.7727 -0.8375 41 
11.1552 2.1611 -0.8374 40 
11.4484 2.2146 -0.8373 56 
11.2473 2.7673 -0.8372 41 
11.322 2.7782 -0.8371 41 
11.8992 2.9118 -0.8371 68 
11.03 2.1441 -0.837 40 
11.2679 2.1815 -0.8368 34 
10.9337 2.1325 -0.8368 70 
11.0252 2.1449 -0.8367 40 
11.2892 2.7739 -0.8366 41 
11.0955 2.1514 -0.8365 40 
11.0694 2.1481 -0.8364 40 
11.1603 2.7496 -0.8362 69 
11.3349 2.7794 -0.8362 41 
11.0436 2.1449 -0.8362 40 
10.8554 2.119 -0.8361 73 
10.9919 2.1403 -0.8359 40 
11.659 2.253 -0.8358 67 
10.7822 2.1082 -0.8357 73 
11.8248 2.8956 -0.8357 71 
10.9644 2.1367 -0.8356 40 
11.201 2.7578 -0.8356 41 
11.1553 2.1612 -0.8356 40 
11.3011 2.7749 -0.8356 41 
11.1263 2.7431 -0.8355 72 
11.4494 2.2148 -0.8355 56 
11.2736 2.7719 -0.8354 41 
11.0306 2.1442 -0.8353 40 
11.3219 2.7782 -0.8353 41 
11.2466 2.7672 -0.8353 41 
11.9002 2.9121 -0.8352 68 
11.2684 2.1816 -0.835 34 
11.0235 2.1446 -0.8348 40 
10.8611 2.1201 -0.8348 73 
11.0946 2.1512 -0.8347 40 
11.3389 2.7804 -0.8346 41 
10.9274 2.1313 -0.8346 70 
11.2873 2.7734 -0.8346 41 
11.0685 2.148 -0.8345 40 
11.0425 2.1447 -0.8344 40 
11.1557 2.7485 -0.8341 69 
10.7835 2.1085 -0.8341 73 
11.6595 2.2531 -0.834 67 
10.9897 2.1398 -0.834 40 
11.8256 2.8958 -0.8339 71 
11.1552 2.1611 -0.8338 40 
11.4506 2.215 -0.8338 56 
10.9621 2.1362 -0.8337 40 
11.2986 2.7743 -0.8336 41 
11.2737 2.772 -0.8336 41 
11.0311 2.1443 -0.8335 40 
11.1966 2.7567 -0.8335 41 
11.1239 2.7425 -0.8335 72 
11.9022 2.9126 -0.8334 68 
11.246 2.767 -0.8334 41 
11.3218 2.7781 -0.8334 41 
11.3458 2.7821 -0.8333 41 
11.2687 2.1816 -0.8332 34 
10.8624 2.1204 -0.8332 73 
11.022 2.1443 -0.8329 40 
11.0939 2.1511 -0.8328 40 
11.2862 2.7731 -0.8327 41 
11.0678 2.1478 -0.8327 40 
11.0423 2.1447 -0.8326 40 
10.7854 2.1089 -0.8325 73 
10.921 2.13 -0.8323 75 
10.9887 2.1396 -0.8322 40 
11.4524 2.2153 -0.8321 56 
11.1541 2.1609 -0.832 40 
11.6581 2.2528 -0.832 67 
11.3528 2.7838 -0.832 74 
11.1515 2.7475 -0.8319 69 
11.8244 2.8955 -0.8319 71 
11.0314 2.1443 -0.8318 40 
11.2727 2.7717 -0.8317 41 
10.9597 2.1358 -0.8317 40 
11.2965 2.7738 -0.8316 41 
11.9037 2.9129 -0.8316 68 
11.6058 2.8439 -0.8316 -1 
11.1212 2.7419 -0.8315 72 
11.3206 2.7778 -0.8315 41 
11.1944 2.7562 -0.8315 41 
11.2434 2.7664 -0.8314 41 
11.2686 2.1816 -0.8314 34 
10.8603 2.1199 -0.8312 73 
11.0208 2.1441 -0.831 40 
11.0933 2.151 -0.831 40 
11.2851 2.7729 -0.8308 41 
10.7863 2.109 -0.8308 73 
11.0421 2.1446 -0.8308 40 
11.0667 2.1476 -0.8308 40 
10.9891 2.1397 -0.8304 40 
11.356 2.7846 -0.8303 74 
11.4532 2.2155 -0.8303 56 
10.9175 2.1293 -0.8303 75 
